# .PCD v0.7 - Point Cloud Data file format
VERSION 0.7
FIELDS x y z
SIZE 4 4 4
TYPE F F F
COUNT 1 1 1
WIDTH 1463
HEIGHT 1
VIEWPOINT 0 0 0 1 0 0 0
POINTS 1463
DATA ascii
2.6002514 -0.51968729 0.41782245
2.6101308 -0.55014479 0.4203122
2.6273706 -0.58257717 0.42404684
2.6326697 -0.61274236 0.42591408
2.695205 -0.65712577 0.43711817
2.9868164 -0.76146764 0.48566952
2.9824958 -0.79371548 0.48629183
3.0044794 -0.83335084 0.49127132
3.0145674 -0.87024415 0.49438342
3.0279949 -0.90857542 0.49811795
3.0409477 -0.94728267 0.50185257
3.0496595 -0.98514515 0.50496459
3.0616562 -1.0245473 0.50869912
3.0768938 -1.0656017 0.5130561
3.0953238 -1.1084186 0.51803553
3.1094856 -1.1503662 0.52239251
3.1194143 -1.1913207 0.52612698
3.1325002 -1.2340571 0.53048384
3.1486905 -1.2786839 0.53546321
3.1606419 -1.3222588 0.53982013
3.175652 -1.3677864 0.54479945
3.1900516 -1.4137719 0.54977876
3.2038336 -1.4602077 0.55475801
3.216989 -1.5070854 0.55973732
3.2295115 -1.5543976 0.56471664
3.2449346 -1.603887 0.57031828
3.2596717 -1.6538681 0.57591999
3.2772188 -1.7061568 0.58214408
3.2905395 -1.757131 0.58774573
3.3066139 -1.8104672 0.59396982
3.3253734 -1.8662648 0.60081637
3.3433235 -1.9226515 0.60766286
3.3638568 -1.9816223 0.6151318
3.3801343 -2.0391901 0.62197822
3.3989322 -2.0993903 0.6294471
3.4168358 -2.1602049 0.63691598
3.4371514 -2.2237685 0.64500731
3.4565053 -2.2879915 0.65309858
2.2537665 1.5377599 0.36279604
2.2367604 1.4920737 0.35752556
2.19912 1.4339192 0.34909245
2.2742028 1.4491735 0.35858056
2.312814 1.4399539 0.36227068
2.3176017 1.4094784 0.36068979
2.328824 1.3831109 0.36016309
2.3363187 1.3546741 0.35910931
2.3434734 1.3262326 0.35805547
2.3502896 1.2977899 0.35700166
2.3567679 1.2693505 0.35594785
2.3629093 1.2409182 0.35489401
2.3722436 1.2143036 0.35436729
2.3812797 1.1876297 0.35384053
2.3900182 1.1608999 0.35331377
2.398458 1.1341176 0.35278702
2.4065995 1.1072861 0.35226026
2.4144423 1.0804083 0.35173351
2.4219863 1.0534881 0.35120666
2.4292321 1.0265285 0.3506799
2.4398472 1.0010378 0.35068023
2.4465113 0.97397107 0.35015339
2.4565752 0.94830239 0.35015368
2.4626558 0.92114067 0.3496269
2.4721656 0.89530593 0.3496272
2.4552095 0.86019528 0.34593767
2.1636326 0.73269486 0.30376929
2.1485734 0.70260715 0.30060688
2.1595933 0.68126631 0.3011342
2.1666076 0.65861827 0.30113441
2.1771901 0.63701147 0.30166173
2.187557 0.61525518 0.30218905
2.1977067 0.59335148 0.30271634
2.2037985 0.57030916 0.30271655
2.2134976 0.54815757 0.30324388
2.2229736 0.52586508 0.30377114
2.2283573 0.50256181 0.30377132
2.2373738 0.48003531 0.30429861
2.2461617 0.45737493 0.30482587
2.2547207 0.4345831 0.30535316
2.2630477 0.41166198 0.30588043
2.2711415 0.38861409 0.30640769
2.2790005 0.36544171 0.30693492
2.2866225 0.34214729 0.30746219
2.2940063 0.31873325 0.30798942
2.3011498 0.29520196 0.30851668
2.31199 0.27201921 0.309571
2.3225956 0.2486417 0.31062537
2.3329644 0.22507176 0.31167966
2.3391426 0.20097251 0.31220689
2.3490257 0.17706646 0.31326124
2.3586633 0.15297532 0.31431556
2.3680534 0.12870173 0.31536993
2.3771927 0.10424817 0.31642419
2.3860788 0.079617269 0.31747854
2.3947084 0.054811653 0.31853279
2.4030795 0.029833995 0.31958708
2.4151542 0.0046945214 0.32116848
2.4229994 -0.020660579 0.32222274
2.4305785 -0.046179488 0.32327706
2.4418507 -0.071976408 0.32485843
2.4528472 -0.098014444 0.32643977
2.4635656 -0.12429067 0.32802117
2.4700432 -0.15056056 0.3290754
2.480195 -0.17726265 0.3306568
2.490057 -0.20419377 0.33223814
2.4996257 -0.23135076 0.33381948
2.5088975 -0.25873044 0.33540079
2.5178685 -0.2863296 0.33698216
2.526535 -0.31414482 0.33856344
2.534894 -0.34217283 0.34014475
2.5468652 -0.37098202 0.34225318
2.5585096 -0.40007922 0.34436163
2.5698216 -0.42946059 0.34647
2.5807974 -0.4591226 0.34857839
2.5914319 -0.48906127 0.35068682
2.6017208 -0.51927274 0.35279518
2.6155393 -0.55056995 0.35543066
2.6328571 -0.58307081 0.35859329
2.6343298 -0.61240166 0.35964742
2.7009676 -0.6577819 0.36966246
2.9859531 -0.76041484 0.40972304
2.9854894 -0.79367524 0.41077715
3.0037608 -0.83230436 0.41446677
3.0177379 -0.87030351 0.41762933
3.0274477 -0.907547 0.42026472
3.0404925 -0.94626719 0.42342722
3.0530555 -0.98535943 0.4265897
3.0651312 -1.0248179 0.4297522
3.0804594 -1.0659331 0.43344182
3.0952597 -1.1074809 0.43713138
3.1095245 -1.1494546 0.44082096
3.1232469 -1.1918473 0.44451052
3.1364198 -1.2346525 0.44820005
3.1490359 -1.2778633 0.45188957
3.1647463 -1.3230021 0.45610619
3.179853 -1.3686087 0.46032277
3.1907232 -1.4130695 0.46401227
3.2046168 -1.4595507 0.46822885
3.2178826 -1.5064763 0.4724454
3.2305148 -1.5538384 0.47666198
3.2425048 -1.6016289 0.48087847
3.2573807 -1.6516325 0.48562217
3.275079 -1.7039521 0.49089286
3.2920351 -1.7568213 0.49616358
3.3117175 -1.8121343 0.50196141
3.3271399 -1.86611 0.50723207
3.3452287 -1.9225812 0.51302981
3.3624954 -1.9796335 0.51882756
3.3823256 -2.0393035 0.52515239
3.3978968 -2.0975201 0.53095007
3.4159672 -2.1584027 0.53727484
3.4364595 -2.2220435 0.54412675
3.4559896 -2.2863474 0.5509786
2.2632537 1.5449849 0.29751882
2.262769 1.5101656 0.29536131
2.2285006 1.4537982 0.28888795
2.2871912 1.4581791 0.29449904
2.3124599 1.4404604 0.29579419
2.324019 1.4141027 0.29536301
2.3318615 1.3856297 0.29450026
2.3393631 1.3571479 0.29363742
2.3465247 1.3286613 0.29277465
2.3568275 1.3020972 0.29234347
2.3633308 1.2735764 0.29148063
2.3694966 1.2450627 0.29061782
2.378864 1.2183729 0.29018661
2.3843746 1.1898478 0.28932375
2.3931258 1.1630799 0.28889251
2.4015787 1.1362591 0.28846127
2.4097321 1.1093891 0.28803003
2.4175866 1.082473 0.2875987
2.4287882 1.0571014 0.28759906
2.4360614 1.0300651 0.28716779
2.446713 1.0045028 0.28716806
2.4534023 0.97735858 0.28673679
2.4597919 0.9501847 0.28630549
2.4658816 0.92298424 0.28587419
2.4828877 0.89982563 0.28673765
2.4583993 0.86193836 0.28285354
2.1622233 0.73276383 0.24789411
2.1584392 0.70637494 0.24659956
2.1657164 0.6837377 0.24659978
2.1727564 0.6610254 0.24659999
2.1795583 0.63824064 0.2466002
2.186121 0.61538607 0.2466004
2.1962831 0.59350127 0.24703221
2.2062261 0.57147092 0.24746399
2.2120881 0.54834062 0.24746418
2.2215772 0.52606648 0.24789596
2.2308426 0.50365365 0.24832775
2.2398808 0.48110431 0.24875952
2.2486916 0.4584209 0.2491913
2.2611771 0.43635902 0.25005469
2.2656212 0.41266069 0.25005484
2.2737365 0.38958862 0.25048661
2.2855427 0.36702216 0.25134993
2.2931924 0.34366176 0.2517817
2.3045418 0.32072937 0.25264502
2.3117168 0.29709008 0.25307676
2.3186493 0.27333555 0.25350848
2.3292913 0.24989249 0.25437182
2.3357375 0.22587375 0.25480354
2.3419354 0.20174734 0.25523525
2.3558145 0.17811519 0.25653014
2.3615174 0.1536981 0.25696185
2.3709376 0.12939765 0.25782514
2.3801074 0.10491668 0.25868845
2.3890231 0.080257796 0.25955173
2.3976824 0.055423662 0.26041502
2.4060826 0.03041693 0.2612783
2.4142213 0.0052403198 0.26214159
2.4260724 -0.020136625 0.26343641
2.4376554 -0.045761198 0.26473132
2.4449909 -0.07151407 0.26559457
2.4560273 -0.097583681 0.26688939
2.4667847 -0.12389226 0.26818427
2.4732893 -0.15019548 0.2690475
2.4834797 -0.17693132 0.27034235
2.4933794 -0.20389692 0.27163711
2.4990258 -0.2307234 0.27250037
2.5083389 -0.25809771 0.27379519
2.5173512 -0.28569221 0.27509001
2.5300055 -0.31399366 0.27681637
2.5384007 -0.34206 0.27811119
2.5504189 -0.37090892 0.27983758
2.5621097 -0.40004689 0.28156397
2.5734682 -0.42947009 0.28329036
2.5844898 -0.45917475 0.28501675
2.5951695 -0.48915708 0.2867431
2.6055033 -0.51941317 0.28846946
2.6193774 -0.55075747 0.29062742
2.6406438 -0.5841673 0.29364857
2.6421278 -0.61358309 0.29451171
2.7089698 -0.65908009 0.30271214
2.9832458 -0.75900418 0.3342194
2.99435 -0.7953037 0.33637729
3.0088508 -0.83297974 0.33896676
3.0190675 -0.86994475 0.34112468
3.0326469 -0.90835577 0.34371415
3.0457506 -0.94714576 0.34630361
3.0545871 -0.98508823 0.34846145
3.0667324 -1.0245794 0.35105091
3.0821416 -1.065732 0.35407194
3.0932775 -1.1059794 0.35666135
3.1113665 -1.1493329 0.36011398
3.1251681 -1.1917678 0.36313495
3.1384189 -1.2346168 0.36615598
3.1547973 -1.2793674 0.36960855
3.1669102 -1.3230622 0.37262949
3.1821036 -1.3687211 0.37608203
3.1966853 -1.4148422 0.3795346
3.2070272 -1.4597697 0.38255548
3.2203779 -1.5067531 0.38600799
3.2330933 -1.5541748 0.38946053
3.2487307 -1.6037871 0.39334461
3.2636802 -1.6538955 0.39722866
3.2779329 -1.7044913 0.40111268
3.2949893 -1.7574369 0.40542835
3.314781 -1.8128328 0.41017556
3.3337693 -1.8688334 0.41492274
3.3519444 -1.9254287 0.41966996
3.3727226 -1.984624 0.42484868
3.3892183 -2.0424104 0.42959583
3.4082537 -2.1028457 0.43477458
3.4263899 -2.1639004 0.4399533
3.4436171 -2.225563 0.44513196
3.4632413 -2.2900147 0.45074221
2.2545052 1.5407997 0.23019926
2.2605729 1.5104669 0.22919221
2.2362206 1.4605589 0.22516263
2.2917075 1.4628019 0.22919306
2.3170447 1.4450561 0.23020096
2.3320489 1.4207174 0.23020139
2.3399463 1.3921466 0.22953011
2.347502 1.3635668 0.22885886
2.3581836 1.3369478 0.22852342
2.3615901 1.3063958 0.22751629
2.361109 1.2740266 0.22617333
2.3602102 1.2418118 0.22483034
2.3553507 1.2079371 0.2231515
2.3678694 1.1832104 0.22315188
2.3837128 1.1600982 0.22348805
2.3993309 1.1367836 0.22382423
2.4147222 1.1132692 0.22416042
2.4262464 1.0879259 0.22416075
2.433851 1.0608704 0.22382523
2.4411554 1.0337754 0.22348969
2.4518456 1.0081596 0.22349
2.4585652 0.98095614 0.22315447
2.4649844 0.95372266 0.22281893
2.471103 0.92646241 0.22248337
2.4806681 0.90053892 0.22248366
2.4598758 0.86395001 0.21979718
2.1555207 0.73179185 0.19192235
2.159277 0.70794201 0.19158673
2.1665707 0.68529582 0.19158696
2.1774397 0.66373676 0.19192301
2.1842697 0.64090288 0.19192322
2.1946959 0.61908084 0.19225927
2.2010574 0.59606868 0.19225948
2.2110355 0.57399273 0.19259551
2.2169237 0.55081189 0.19259571
2.2264471 0.52849126 0.19293173
2.2357457 0.50603139 0.19326776
2.2448175 0.48343471 0.19360378
2.2536607 0.4607034 0.19393981
2.2661872 0.43859711 0.19461167
2.2745752 0.41556245 0.19494766
2.2827294 0.39240015 0.19528365
2.290647 0.36911258 0.19561964
2.2983272 0.34570214 0.19595563
2.3057678 0.32217127 0.19629163
2.3169198 0.29903245 0.19696344
2.3238814 0.27522659 0.19729942
2.3305976 0.25130767 0.19763537
2.3370676 0.22727822 0.19797134
2.34726 0.20348488 0.19864313
2.3572099 0.17950292 0.19931495
2.3629365 0.1550739 0.1996509
2.3723891 0.13076384 0.20032267
2.3815913 0.10627274 0.20099446
2.3905392 0.081603184 0.20166624
2.3992314 0.056757856 0.20233802
2.4076636 0.031739384 0.20300977
2.4158344 0.0065505141 0.20368151
2.427727 -0.018837143 0.20468913
2.4393513 -0.044473149 0.20569675
2.4467187 -0.070240073 0.20636846
2.4577966 -0.096322477 0.20737606
2.4685948 -0.12264453 0.20838362
2.4791098 -0.14920327 0.20939121
2.4853621 -0.17571427 0.21006291
2.4953027 -0.20269549 0.21107046
2.5009806 -0.22953954 0.21174218
2.5142989 -0.25733683 0.21308556
2.5233474 -0.28499049 0.2140931
2.5320907 -0.31286174 0.21510065
2.544476 -0.3414776 0.21644405
2.5525932 -0.3698152 0.21745153
2.5643334 -0.39897317 0.2187949
2.5757411 -0.42841727 0.22013828
2.5868113 -0.45814374 0.22148164
2.5975397 -0.48814878 0.22282496
2.6118307 -0.51920593 0.22450416
2.6218534 -0.54979706 0.22584747
2.6431961 -0.5832321 0.22819833
2.6485915 -0.61357445 0.2292058
2.71174 -0.65820032 0.23525101
2.998307 -0.76110995 0.2607756
3.0055826 -0.79654711 0.26211885
3.0124428 -0.83221972 0.26346207
3.0265448 -0.87032652 0.26547706
3.0363581 -0.90767729 0.26715612
3.0495253 -0.94651037 0.26917106
3.0622094 -0.98571795 0.27118596
3.0781853 -1.0265553 0.27353671
3.0898714 -1.0665338 0.27555162
3.1010551 -1.1068687 0.27756649
3.11921 -1.1503128 0.28025308
3.1330659 -1.1928385 0.28260377
3.1463711 -1.2357799 0.28495449
3.1591172 -1.2791294 0.28730512
3.171298 -1.3228804 0.2896558
3.186568 -1.3685987 0.29234231
3.2012248 -1.4147804 0.29502878
3.2116325 -1.4597685 0.2973794
3.2250571 -1.5068157 0.30006588
3.2414386 -1.5560281 0.30308819
3.2535644 -1.6039842 0.30577457
3.2685945 -1.6541634 0.30879685
3.2829266 -1.7048316 0.31181908
3.3000708 -1.7578537 0.31517717
3.3199582 -1.8133309 0.31887108
3.3390412 -1.8694149 0.32256496
3.3607671 -1.928079 0.32659468
3.3781893 -1.9853805 0.3302885
3.3981907 -2.0453117 0.33431816
3.4139097 -2.103785 0.33801198
3.4355149 -2.1670637 0.34237742
3.4528151 -2.2288599 0.346407
3.4725199 -2.2934504 0.35077247
2.2285361 1.5235052 0.16240825
2.2476859 1.5023079 0.16264869
2.2733207 1.4852445 0.16336918
2.2988439 1.4678082 0.16408966
2.3276372 1.452113 0.16505019
2.3324862 1.4214293 0.16433053
2.34038 1.3928459 0.16385089
2.3479316 1.3642538 0.16337124
2.3551416 1.3356563 0.1628916
2.3620112 1.3070582 0.16241191
2.3615134 1.2746696 0.1614522
2.3605976 1.2424355 0.16049246
2.3592672 1.2103614 0.15953271
2.3718116 1.1855934 0.15953307
2.3840954 1.1606954 0.15953343
2.4033344 1.1390907 0.16001381
2.4187555 1.1155374 0.16025418
2.4303036 1.0901518 0.16025452
2.4342649 1.0614545 0.15977478
2.4415689 1.0343518 0.15953507
2.4522655 1.0087317 0.15953538
2.4589849 0.98152071 0.15929566
2.4691269 0.95572114 0.15929595
2.4752605 0.92841464 0.15905622
2.4885981 0.90381044 0.15929653
2.4677889 0.86711574 0.15737654
2.1591575 0.73336232 0.13721402
2.1591294 0.70822704 0.13673419
2.1702332 0.68678713 0.13697444
2.177305 0.66402751 0.13697466
2.1841378 0.64119494 0.13697487
2.1945741 0.61937672 0.13721511
2.2009387 0.59636581 0.1372153
2.2109261 0.57429343 0.13745554
2.2206924 0.55207705 0.13769576
2.2263508 0.52879632 0.13769594
2.2356589 0.50633949 0.13793615
2.2447407 0.48374575 0.13817637
2.2535939 0.4610171 0.13841657
2.2622168 0.43815604 0.13865677
2.2706072 0.41516477 0.13889696
2.2787642 0.39204586 0.13913716
2.2866855 0.36880147 0.13937734
2.2943695 0.34543413 0.1396175
2.3057678 0.32249916 0.14009771
2.3129776 0.2988517 0.14033788
2.323909 0.27555856 0.14081807
2.3306358 0.25164065 0.14105824
2.3410897 0.22799894 0.14153843
2.3473258 0.20382048 0.14177856
2.3572922 0.17983997 0.14225873
2.3630297 0.15541115 0.14249888
2.3724997 0.13110194 0.14297903
2.3817186 0.1066114 0.14345919
2.3906844 0.081942119 0.14393935
2.3993936 0.05709669 0.14441949
2.4118359 0.032130823 0.14513968
2.4200244 0.0068994067 0.14561981
2.4319413 -0.01853062 0.14633997
2.4395967 -0.044137031 0.1468201
2.450973 -0.070020057 0.14754027
2.4580836 -0.095990121 0.14802039
2.4689064 -0.12231456 0.14874052
2.4754601 -0.14863659 0.14922062
2.4857152 -0.17539053 0.14994074
2.4956801 -0.20237547 0.15066087
2.5053513 -0.22958826 0.151381
2.5147245 -0.25702563 0.15210111
2.523797 -0.28468442 0.15282121
2.5325644 -0.3125613 0.15354131
2.5449805 -0.34118357 0.15450144
2.5531218 -0.36952779 0.15522152
2.5648923 -0.39869329 0.15618163
2.5763302 -0.42814559 0.15714177
2.5874312 -0.45788088 0.15810187
2.5981898 -0.48789534 0.15906197
2.6125183 -0.51896322 0.16026209
2.6225705 -0.54956514 0.16122216
2.640065 -0.58215427 0.16266231
2.6493824 -0.6133678 0.16362238
2.7165368 -0.65896302 0.16818303
2.9958746 -0.76004684 0.18594584
2.9954691 -0.79341823 0.18642579
3.0139365 -0.83217925 0.18810593
3.0242426 -0.86920673 0.18930596
3.0379269 -0.90768403 0.19074601
3.0511343 -0.94654244 0.19218609
3.0638587 -0.98577648 0.19362614
3.0760934 -1.0253798 0.19506615
3.0916066 -1.0666493 0.19674623
3.1065898 -1.108355 0.19842628
3.1210358 -1.1504906 0.20010632
3.1349368 -1.1930493 0.20178634
3.1520021 -1.2374834 0.20370638
3.1647768 -1.2809064 0.20538639
3.1769845 -1.3247315 0.20706639
3.1886184 -1.3689517 0.20874636
3.2033241 -1.4151732 0.21066634
3.2174082 -1.4618515 0.21258633
3.2308629 -1.5089786 0.2145063
3.2436798 -1.5565461 0.21642624
3.259433 -1.6063114 0.21858621
3.2744963 -1.6565757 0.22074617
3.2888608 -1.7073298 0.22290613
3.3060415 -1.7604415 0.22530608
3.3259718 -1.8160121 0.22794604
3.3450956 -1.8721906 0.23058601
3.3634038 -1.9289666 0.23322596
3.3808854 -1.986329 0.23586585
3.4009511 -2.0463252 0.23874576
3.4201264 -2.106957 0.24162568
3.4384007 -2.1682119 0.24450555
3.4557631 -2.2300785 0.24738544
3.4788651 -2.2969432 0.25074533
2.2473953 1.5368587 0.098266497
2.2334578 1.4932472 0.096970297
2.2456248 1.4675941 0.096826643
2.3181384 1.4805834 0.099276282
2.3165586 1.445649 0.09855634
2.3315687 1.4213156 0.09855675
2.3394542 1.3927363 0.098269023
2.3469973 1.364148 0.097981267
2.3541987 1.335555 0.09769351
2.364557 1.3088973 0.097549826
2.3710978 1.2802699 0.097262055
2.3808362 1.2535118 0.097118355
2.3902748 1.2266905 0.096974641
2.3958373 1.1980211 0.09668684
2.4010627 1.1693702 0.096399039
2.4095633 1.1424541 0.09625531
2.4177637 1.1154886 0.096111558
2.4256642 1.0884768 0.095967814
2.4369285 1.0630202 0.095968142
2.4442451 1.0358872 0.095824376
2.4549572 1.010239 0.095824681
2.4616883 0.9829976 0.095680907
2.468118 0.95572609 0.095537134
2.4705045 0.92702347 0.095249251
2.4875896 0.90383661 0.095537707
2.4629762 0.86581028 0.094241239
2.1539793 0.7319383 0.082138509
2.1577268 0.7080999 0.08199466
2.1688333 0.68667662 0.082138963
2.1759038 0.66393167 0.082139179
2.1827359 0.64111388 0.082139388
2.1893287 0.61822575 0.082139596
2.1995394 0.59631586 0.082283877
2.2056623 0.57325429 0.082284071
2.2154222 0.55109477 0.082428344
2.2249594 0.52879357 0.082572624
2.2303736 0.5054695 0.082572795
2.2394509 0.48293257 0.082717054
2.2522163 0.46106255 0.083005399
2.2608445 0.43821734 0.083149649
2.2692404 0.41524187 0.083293885
2.2774022 0.39213857 0.083438121
2.2853291 0.36890975 0.083582364
2.2930183 0.34555787 0.083726585
2.3044276 0.32263941 0.084014893
2.3116429 0.29900715 0.084159099
2.3186159 0.27525908 0.084303319
2.3253443 0.25139767 0.084447518
2.3358049 0.22781335 0.084735803
2.3460264 0.20403746 0.085024096
2.3560045 0.18007237 0.085312366
2.3617487 0.15565787 0.085456543
2.3712306 0.13136373 0.085744813
2.3804617 0.106888 0.086033069
2.3894393 0.082233295 0.086321332
2.4021568 0.057497725 0.086753659
2.4106205 0.032451145 0.087041914
2.4188213 0.0072335973 0.08733014
2.4307559 -0.018182268 0.087762468
2.4384241 -0.04377532 0.088050678
2.4498181 -0.069644786 0.088482991
2.4569421 -0.095602006 0.088771209
2.4677827 -0.12191351 0.089203507
2.4783404 -0.14846249 0.089635797
2.488611 -0.17524588 0.090068072
2.4985912 -0.2022606 0.090500355
2.5082774 -0.22950341 0.09093263
2.5176656 -0.25697121 0.091364875
2.526752 -0.28466067 0.091797136
2.5355334 -0.31256852 0.092229396
2.5479679 -0.34122208 0.092805721
2.5561223 -0.36959788 0.093237951
2.5679109 -0.39879546 0.093814276
2.5793662 -0.42828017 0.094390586
2.5944204 -0.45874453 0.095110983
2.6051879 -0.48883331 0.095687278
2.6156085 -0.51919764 0.096263565
2.6256766 -0.54983342 0.09683983
2.6392922 -0.58159721 0.097560205
2.6486337 -0.61280459 0.098136455
2.7158818 -0.6584025 0.10087407
2.9994416 -0.76050597 0.11168069
3.0029049 -0.79493922 0.11211281
3.0175345 -0.83271921 0.11297721
3.0278573 -0.86978793 0.11369751
3.0415628 -0.90830779 0.11456188
3.0547912 -0.94720936 0.11542623
3.0675361 -0.98648679 0.11629058
3.0797904 -1.0261344 0.11715493
3.0915482 -1.0661457 0.11801924
3.1065683 -1.1078579 0.11902765
3.1210511 -1.1500008 0.12003604
3.134989 -1.1925675 0.12104442
3.1483743 -1.235551 0.12205277
3.1649063 -1.2804439 0.12320521
3.1771502 -1.3242791 0.12421356
3.1924932 -1.3700869 0.12536596
3.2072227 -1.4163599 0.12651835
3.2176898 -1.4614366 0.12752666
3.231184 -1.5085781 0.12867902
3.2476447 -1.5578904 0.12997545
3.2598374 -1.6059442 0.1311278
3.2749438 -1.6562269 0.13242421
3.2928989 -1.7088418 0.13386467
3.3101072 -1.7620125 0.13530514
3.3265593 -1.815729 0.13674557
3.3457336 -1.8719332 0.13833009
3.3640912 -1.9287357 0.13991457
3.3816223 -1.9861256 0.14149903
3.401741 -2.0461526 0.14322756
3.4209688 -2.1068158 0.14495607
3.4392953 -2.1681039 0.14668457
3.460067 -2.2321706 0.14855711
3.4798694 -2.2969072 0.15042964
2.2353535 1.5289081 0.032675907
2.2512403 1.5054204 0.032676339
2.2367492 1.4620705 0.032244429
2.2923827 1.4644122 0.032821305
2.3211625 1.4488026 0.03301388
2.3327906 1.4223385 0.032966256
2.340683 1.3937434 0.032870583
2.3482327 1.3651394 0.032774903
2.3554411 1.3365304 0.032679208
2.362308 1.3079207 0.032583509
2.3723545 1.281215 0.032535847
2.3785622 1.2525786 0.032440133
2.3879888 1.2257797 0.032392453
2.3935385 1.1971316 0.032296725
2.4059422 1.1720055 0.032297075
2.4144683 1.1450371 0.032249376
2.4190619 1.1163427 0.032153621
2.4269693 1.0893159 0.032105908
2.4382422 1.0638456 0.032106232
2.4455652 1.0366977 0.032058503
2.4525874 1.0095131 0.032010768
2.4630229 0.98377913 0.032011073
2.4694593 0.95649254 0.031963322
2.4718494 0.92777354 0.031867515
2.4851873 0.90320849 0.031915847
2.4605489 0.86519748 0.031483673
2.1551585 0.73254818 0.027495764
2.15891 0.70869637 0.027447945
2.1700249 0.6872617 0.027496217
2.1771016 0.66450417 0.027496433
2.1839397 0.64167392 0.027496643
2.1943872 0.61986047 0.027544905
2.2007568 0.59685159 0.027545104
2.2068851 0.5737772 0.027545299
2.2166524 0.5516057 0.02759354
2.2261972 0.52929246 0.027641779
2.2355175 0.50683981 0.027690008
2.2446108 0.4842498 0.027738234
2.2534761 0.46152487 0.027786456
2.2621109 0.43866718 0.027834671
2.2705133 0.41567922 0.02788288
2.2786825 0.39256331 0.027931085
2.2866158 0.36932182 0.027979288
2.2943115 0.34595713 0.02802748
2.3017683 0.32247162 0.028075667
2.3129508 0.29938117 0.028171906
2.3199301 0.27562004 0.028220082
2.3306406 0.25217557 0.028316312
2.3371332 0.22814848 0.028364476
2.3473625 0.20435977 0.028460693
2.3573484 0.18038173 0.028556904
2.3630981 0.15595365 0.028605049
2.3725877 0.13164632 0.028701253
2.3818262 0.10715728 0.028797446
2.3908114 0.082489148 0.028893635
2.3995397 0.057644531 0.028989814
2.4080095 0.032626133 0.029085992
2.4202168 0.0074487594 0.029230218
2.4281604 -0.017950956 0.029326385
2.4398351 -0.04358786 0.0294706
2.4472401 -0.06935773 0.029566752
2.4583683 -0.095442824 0.029710956
2.4652228 -0.12157133 0.029807094
2.4757907 -0.14809285 0.029951286
2.4860725 -0.174849 0.030095469
2.4960644 -0.20183665 0.030239647
2.5057619 -0.2290526 0.030383816
2.5151618 -0.25649375 0.030527981
2.5242605 -0.28415674 0.03067214
2.5330541 -0.31203827 0.030816289
2.5455039 -0.34066579 0.031008489
2.5536714 -0.36901575 0.031152625
2.5654752 -0.39818767 0.031344812
2.5769465 -0.42764702 0.031536989
2.5880804 -0.45739004 0.031729162
2.5988719 -0.48741281 0.03192132
2.61324 -0.51849014 0.032161538
2.6233253 -0.54910165 0.032353684
2.6486781 -0.58342367 0.032738052
2.6463192 -0.61202538 0.032786012
2.725281 -0.66042972 0.033843163
2.9973624 -0.7597 0.037303146
3.0047073 -0.7951358 0.037495237
3.0154932 -0.83187222 0.037735373
3.029681 -0.87002546 0.038023554
3.0433977 -0.90856624 0.038311727
3.0566368 -0.94748908 0.03859989
3.0655849 -0.98556358 0.038839985
3.0816576 -1.0264573 0.039176177
3.0934255 -1.0664907 0.03946431
3.1084583 -1.1082258 0.03980048
3.1267059 -1.1517745 0.040184695
3.1369023 -1.1929816 0.040472791
3.1502995 -1.2359889 0.040808916
3.1668448 -1.2809062 0.041193098
3.1790998 -1.3247659 0.041529201
3.1944556 -1.3705986 0.041913345
3.2091975 -1.4168968 0.042297486
3.2233167 -1.4636527 0.042681601
3.2368052 -1.5108584 0.043065712
3.2496552 -1.5585053 0.043449797
3.2618592 -1.6065859 0.043833874
3.2769787 -1.6568964 0.044265985
3.2913985 -1.7076977 0.044698078
3.308641 -1.7608604 0.045178209
3.3286378 -1.8164859 0.045706369
3.3478279 -1.8727207 0.046234507
3.3696716 -1.9315438 0.046810683
3.3871963 -1.9890015 0.047338787
3.403883 -2.0470355 0.04786687
3.4231277 -2.1077321 0.048442982
3.4414699 -2.1690536 0.04901908
3.4622595 -2.2331557 0.0496432
3.4854167 -2.3001313 0.050315335
2.2255299 1.5220162 -0.032213066
2.2213957 1.4852918 -0.031924497
2.2267826 1.4553876 -0.031780008
2.3160548 1.479364 -0.032836083
2.321239 1.4486804 -0.032691594
2.332866 1.4222157 -0.032643158
2.3441932 1.3956665 -0.032594733
2.3517628 1.3670257 -0.032498289
2.3589902 1.3383805 -0.03240186
2.3693759 1.311671 -0.032353457
2.3759415 1.2829906 -0.032257039
2.3857062 1.2561805 -0.032208648
2.3916123 1.2274805 -0.032112248
2.4043336 1.2023729 -0.032111887
2.4095998 1.1736305 -0.032015502
2.4181428 1.1466238 -0.031967144
2.4263844 1.1195672 -0.03191879
2.4343252 1.0924637 -0.031870443
2.4419644 1.0653169 -0.031822104
2.452985 1.0396909 -0.031821787
2.4600382 1.0124288 -0.031773455
2.4667897 0.98513311 -0.031725142
2.4769692 0.9592517 -0.031724848
2.4831326 0.93185967 -0.031676538
2.4889944 0.90444392 -0.031628244
2.3058891 0.81067705 -0.029179417
2.1514101 0.73114789 -0.027114723
2.1589475 0.70858294 -0.027114496
2.1662483 0.68594033 -0.027114272
2.1771367 0.66438985 -0.027162066
2.1839736 0.64155912 -0.027161855
2.1905708 0.61865813 -0.02716165
2.1969278 0.59568924 -0.027161451
2.2069156 0.57366133 -0.027209267
2.2128007 0.55052376 -0.027209079
2.2223341 0.52825069 -0.0272569
2.2316434 0.50583827 -0.027304729
2.2407267 0.48328876 -0.027352564
2.2495821 0.46060437 -0.027400406
2.2621341 0.43854848 -0.027496258
2.2666013 0.41484013 -0.027496103
2.2787035 0.39244378 -0.027591962
2.2866354 0.36920187 -0.027639827
2.298285 0.34643281 -0.027735697
2.3057466 0.32290551 -0.027783569
2.3169339 0.29977304 -0.027879454
2.3239167 0.27596989 -0.027927337
2.3346307 0.25248328 -0.028023226
2.3411264 0.22841418 -0.028071122
2.3513579 0.20458321 -0.028167028
2.3613465 0.18056294 -0.028262937
2.3710885 0.1563558 -0.028358854
2.3805821 0.13196437 -0.028454775
2.3898237 0.10739122 -0.028550703
2.3988106 0.082638919 -0.028646635
2.4115391 0.057805795 -0.028790578
2.4200096 0.032661323 -0.028886521
2.4322169 0.0073576737 -0.029030478
2.4441583 -0.018198073 -0.029174434
2.4518306 -0.043931253 -0.029270397
2.4592311 -0.069827117 -0.029366367
2.4663575 -0.095882781 -0.029462345
2.4772012 -0.12229274 -0.029606326
2.4837689 -0.14870104 -0.029702317
2.4940436 -0.17554131 -0.029846314
2.5040274 -0.20261298 -0.029990317
2.5176995 -0.23027748 -0.030182334
2.527086 -0.25784412 -0.030326352
2.5361695 -0.28563246 -0.030470373
2.5449471 -0.31363925 -0.030614408
2.5573795 -0.34239212 -0.030806448
2.5655282 -0.37086689 -0.030950494
2.577312 -0.40016371 -0.031142548
2.5887613 -0.4297477 -0.031334616
2.5998724 -0.45961511 -0.031526685
2.61064 -0.4897621 -0.031718768
2.6210597 -0.52018464 -0.031910852
2.6350415 -0.5516988 -0.032150954
2.6447423 -0.58270144 -0.032343056
2.6579781 -0.61486906 -0.032583173
2.7874401 -0.67565215 -0.034263395
3.0050771 -0.761823 -0.037047733
3.0162659 -0.79836392 -0.037287891
3.0308723 -0.83628637 -0.037576061
3.0450125 -0.87460148 -0.037864245
3.0586808 -0.91330391 -0.038152434
3.0718691 -0.95238769 -0.038440637
3.0845721 -0.99184704 -0.038728852
3.0967824 -1.0316761 -0.039017085
3.1084948 -1.0718688 -0.039305318
3.1234698 -1.1137629 -0.039641574
3.1341522 -1.154704 -0.03992983
3.1517937 -1.1988344 -0.040314119
3.1651282 -1.2419986 -0.040650412
3.1779017 -1.2855724 -0.040986717
3.1937983 -1.3310877 -0.04137104
3.205411 -1.3754978 -0.04170737
3.2201006 -1.4219122 -0.042091727
3.2341659 -1.4687836 -0.042476092
3.2475991 -1.5161039 -0.042860474
3.263999 -1.5655953 -0.043292876
3.2761273 -1.6138271 -0.043677289
3.2947388 -1.6660931 -0.044157732
3.3126104 -1.7189244 -0.044638194
3.3297331 -1.7723104 -0.045118675
3.3496079 -1.828158 -0.045647185
3.3651834 -1.8826609 -0.046127699
3.3834503 -1.9396776 -0.046656247
3.4043369 -1.9993069 -0.047232825
3.4209135 -2.0575218 -0.047761403
3.4400458 -2.1183982 -0.048338018
3.4616575 -2.1820314 -0.048962671
3.4823086 -2.2463465 -0.049587343
3.5053256 -2.313534 -0.05026006
2.2537782 1.5416821 -0.098331086
2.2498617 1.5046667 -0.097465478
2.2387273 1.4635284 -0.096311495
2.2943513 1.4658368 -0.098041408
2.3265285 1.4523193 -0.098761961
2.3381953 1.4257998 -0.098617353
2.3461273 1.3971498 -0.098328561
2.3537169 1.3684907 -0.098039769
2.3609641 1.339826 -0.097750992
2.371367 1.3130968 -0.097606413
2.3814692 1.2862968 -0.097461842
2.3912704 1.2594295 -0.097317286
2.3972144 1.2306722 -0.097028531
2.406394 1.2037175 -0.09688399
2.4116786 1.1749547 -0.096595258
2.4202373 1.1479267 -0.096450724
2.4248655 1.1191734 -0.096162006
2.4364514 1.0937237 -0.096161671
2.4441061 1.0665551 -0.09601716
2.4551396 1.0409067 -0.096016847
2.4622073 1.0136223 -0.095872343
2.4689736 0.98630434 -0.095727853
2.4754381 0.958956 -0.095583372
2.485343 0.93298542 -0.095583074
2.4912188 0.9055469 -0.095438614
2.3233273 0.81708074 -0.08866173
2.1538756 0.73223686 -0.081884876
2.1614242 0.70964605 -0.081884645
2.1687357 0.68697739 -0.081884421
2.1758096 0.66423345 -0.081884205
2.1826448 0.64141661 -0.081883997
2.1892405 0.6185295 -0.081883788
2.1955965 0.59557462 -0.081883594
2.2055805 0.57356048 -0.082027592
2.2114644 0.55043685 -0.082027406
2.2209952 0.52817774 -0.082171395
2.2303014 0.50577927 -0.082315393
2.2393818 0.48324364 -0.082459398
2.2521505 0.46137545 -0.082747594
2.2568572 0.43777037 -0.082747437
2.2691805 0.4155573 -0.083035633
2.2773457 0.39245516 -0.08317966
2.2852759 0.36922756 -0.083323702
2.2929685 0.34587675 -0.083467737
2.3043809 0.32295999 -0.083755963
2.3115995 0.29932874 -0.083900005
2.3225451 0.2760534 -0.084188245
2.3332555 0.25258151 -0.084476478
2.3437285 0.22891545 -0.084764734
2.3539608 0.20505768 -0.085052967
2.3679349 0.18131566 -0.085485406
2.3736911 0.15677674 -0.085629493
2.3831842 0.13235863 -0.085917756
2.3884318 0.10757914 -0.086061858
2.3974161 0.082842089 -0.086350128
2.4101398 0.058024671 -0.08678259
2.422605 0.032949802 -0.087215059
2.4388058 0.007632528 -0.087791704
2.4467456 -0.01796137 -0.088080004
2.4584124 -0.043792117 -0.08851248
2.4618137 -0.069642685 -0.088656627
2.4729311 -0.095879436 -0.089089118
2.4797754 -0.12215975 -0.089377455
2.4903297 -0.14883257 -0.089809954
2.496609 -0.17545933 -0.090098292
2.5065866 -0.20255604 -0.090530813
2.5162692 -0.22988087 -0.090963341
2.5256529 -0.25743061 -0.091395885
2.538707 -0.28564918 -0.091972597
2.5474775 -0.31368038 -0.09240514
2.5598998 -0.34245676 -0.092981875
2.5680413 -0.37095577 -0.093414448
2.5798151 -0.40027583 -0.09399119
2.5912545 -0.42988276 -0.09456794
2.6023552 -0.45977306 -0.095144697
2.6131122 -0.48994258 -0.095721468
2.6274419 -0.52116555 -0.096442416
2.641402 -0.552742 -0.097163387
2.6627944 -0.58638752 -0.098172709
2.6642957 -0.61603689 -0.098461151
2.7820158 -0.67402822 -0.10307489
3.0072956 -0.76205003 -0.11172558
3.014607 -0.79758662 -0.11230243
3.0292087 -0.83548552 -0.11316764
3.0433452 -0.87377709 -0.11403286
3.057009 -0.91245562 -0.11489809
3.0701942 -0.95151544 -0.11576331
3.0828938 -0.99095064 -0.11662857
3.0951018 -1.0307555 -0.11749383
3.1105902 -1.0722266 -0.11850327
3.1255472 -1.1141343 -0.11951274
3.1399643 -1.1564717 -0.12052221
3.1538351 -1.1992325 -0.1215317
3.1671507 -1.242409 -0.1225412
3.1836116 -1.2874942 -0.12369488
3.1957822 -1.3315213 -0.12470441
3.2110503 -1.3775194 -0.12585814
3.2293591 -1.4255967 -0.12715605
3.2433701 -1.4725541 -0.1283098
3.2567484 -1.5199599 -0.12946357
3.269486 -1.5678056 -0.13061734
3.2779896 -1.6143172 -0.13162693
3.296577 -1.6665889 -0.13306913
3.2824912 -1.7028553 -0.13321367
0.78638786 -0.42883322 -0.032141931
0.71556896 -0.39996007 -0.029402535
3.3400831 -1.9143457 -0.13869421
3.3750036 -1.9816005 -0.14100157
3.4054506 -2.0477331 -0.1431648
3.4382803 -2.1168132 -0.14547223
3.463268 -2.1825387 -0.14749131
3.4872513 -2.249017 -0.14951043
3.5102155 -2.3162327 -0.15152954
3.5321503 -2.3841732 -0.15354869
2.2212725 1.5199555 -0.16184434
2.2470219 1.5032767 -0.16256498
2.229224 1.4578139 -0.16016102
2.3251085 1.4860024 -0.16592908
2.3303812 1.4552321 -0.16520761
2.3352656 1.4245152 -0.16448614
2.3431931 1.3958997 -0.16400501
2.3507783 1.3672748 -0.16352391
2.3614936 1.3406159 -0.16328317
2.3719091 1.3138828 -0.16304243
2.378511 1.2851806 -0.16256136
2.3883052 1.258346 -0.16232064
2.3942466 1.2296228 -0.16183956
2.4034202 1.2027007 -0.16159886
2.4122925 1.1757216 -0.16135816
2.4208634 1.1486886 -0.16111746
2.4291337 1.1216053 -0.16087677
2.4371021 1.0944749 -0.16063611
2.4447694 1.0673008 -0.16039544
2.4521351 1.0400864 -0.16015479
2.4628909 1.0143553 -0.16015446
2.4696689 0.98703122 -0.15991381
2.4761453 0.9596765 -0.15967315
2.4897957 0.9351024 -0.15991321
2.4769363 0.9007948 -0.15847088
2.1962185 0.77276403 -0.13996425
2.1550481 0.73301244 -0.1368396
2.1701913 0.71290147 -0.13732003
2.1699243 0.68772829 -0.13683914
2.1770058 0.66497183 -0.13683893
2.1838486 0.64214253 -0.13683872
2.1904521 0.61924279 -0.13683851
2.2006688 0.59732109 -0.13707864
2.2106659 0.57525313 -0.13731878
2.2165673 0.55207616 -0.13731858
2.2261102 0.52976304 -0.13755873
2.2354283 0.50731057 -0.13779889
2.2445197 0.48472089 -0.13803907
2.2494714 0.46119443 -0.1380389
2.258096 0.4383783 -0.13827908
2.266489 0.41543201 -0.13851926
2.2746484 0.39235792 -0.13875945
2.2865145 0.3697958 -0.13923998
2.294208 0.34643191 -0.13948017
2.3056171 0.32350215 -0.13996071
2.3128369 0.299858 -0.14020093
2.3277431 0.27704152 -0.1409218
2.3384547 0.25351545 -0.14140238
2.3489275 0.22979526 -0.14188293
2.3591592 0.20588344 -0.1423635
2.3651659 0.18147713 -0.14260374
2.3749032 0.15723115 -0.14308432
2.3843918 0.13280112 -0.14356488
2.3936276 0.10818948 -0.14404547
2.4026091 0.083398931 -0.14452609
2.4113326 0.058432121 -0.14500669
2.4237885 0.033346444 -0.14572762
2.435982 0.0080062905 -0.14644857
2.4479091 -0.017585598 -0.14716952
2.4555736 -0.043355722 -0.14765014
2.4669576 -0.069400787 -0.1483711
2.4740736 -0.095534705 -0.14885175
2.4809124 -0.12182528 -0.14933239
2.4914567 -0.14850731 -0.15005337
2.5017128 -0.17542347 -0.15077436
2.5076969 -0.20224941 -0.15125506
2.5173688 -0.22958271 -0.15197603
2.5267425 -0.2571407 -0.15269704
2.5358133 -0.28492007 -0.15341808
2.5445781 -0.31291741 -0.15413909
2.5569906 -0.34165853 -0.15510045
2.5651269 -0.37012321 -0.15582152
2.5768917 -0.39940748 -0.1567829
2.5883226 -0.42897838 -0.15774427
2.6033473 -0.4595266 -0.15894602
2.614089 -0.48970068 -0.15990742
2.6323156 -0.52170283 -0.16134951
2.6462479 -0.55332243 -0.16255125
2.6676033 -0.58700734 -0.16423367
2.665199 -0.61580467 -0.16447413
2.7245731 -0.65965325 -0.16855992
3.0000634 -0.75971526 -0.18610448
3.0266829 -0.80027348 -0.18826763
3.0335321 -0.83616519 -0.18922912
3.0476353 -0.87449068 -0.19067128
3.0612659 -0.91320258 -0.19211347
3.0744176 -0.95229501 -0.19355567
3.0870836 -0.99176234 -0.19499788
3.0992577 -1.0315987 -0.19644007
3.1147082 -1.0730987 -0.19812264
3.1296263 -1.1150343 -0.19980522
3.1440053 -1.1573992 -0.20148779
3.1578369 -1.2001864 -0.20317039
3.1711144 -1.2433889 -0.204853
3.1838303 -1.2870003 -0.20653561
3.1996636 -1.3325485 -0.20845859
3.214889 -1.3785681 -0.21038158
3.2294981 -1.4250513 -0.21230461
3.2434828 -1.4719901 -0.21422762
3.2568352 -1.5193768 -0.21615064
3.2623472 -1.5637507 -0.217593
0.71682256 -0.35262951 -0.04791297
0.64894748 -0.32769173 -0.043586913
1.0332086 -0.5493688 -0.070264973
1.0179898 -0.5689289 -0.070024885
1.0223678 -0.58550918 -0.070746034
1.0230659 -0.60022163 -0.071226843
1.0098794 -0.60678321 -0.070746303
1.0374709 -0.63825101 -0.073149867
3.4427116 -2.1688251 -0.24475618
3.490279 -2.2501924 -0.2498039
3.5131817 -2.3173971 -0.25316924
3.5416744 -2.389792 -0.25701532
2.0175924 1.3503307 -0.20469676
2.034956 1.3313154 -0.20503275
2.3073511 1.475275 -0.23093309
2.3328133 1.4573723 -0.2319418
2.3377388 1.4266386 -0.23093227
2.3457015 1.398003 -0.23025912
2.3533211 1.3693575 -0.22958598
2.360599 1.340706 -0.22891285
2.3710215 1.3139849 -0.22857606
2.3811438 1.2871928 -0.22823933
2.3874395 1.2584743 -0.22756621
2.3969407 1.2315872 -0.22722951
2.4061408 1.2046392 -0.22689275
2.41504 1.1776336 -0.22655603
2.4200373 1.1488647 -0.22588296
2.4283152 1.1217921 -0.22554624
2.4362926 1.0946726 -0.22520955
2.4476211 1.0691044 -0.22520922
2.4550123 1.041862 -0.22487254
2.4657865 1.0161009 -0.22487223
2.4725897 0.98874831 -0.22453557
2.4753745 0.95992362 -0.22386253
2.4852896 0.93395364 -0.22386223
2.4612224 0.89561421 -0.2208347
2.1960135 0.77316505 -0.19628005
2.1624823 0.7360037 -0.19257981
2.1738563 0.71456718 -0.19291593
2.17362 0.68935823 -0.19224299
2.1807184 0.66656303 -0.19224279
2.1875777 0.64369476 -0.19224256
2.1980326 0.62184095 -0.19257872
2.2044227 0.5987938 -0.19257852
2.2144279 0.57668543 -0.19291466
2.2203443 0.55346906 -0.19291449
2.2298949 0.53111559 -0.19325067
2.235333 0.50773978 -0.19325049
2.244422 0.48515028 -0.19358668
2.2532825 0.4624261 -0.19392286
2.2619131 0.43956938 -0.19425906
2.2703114 0.41658264 -0.19459528
2.2784758 0.39346805 -0.19493148
2.2864044 0.37022799 -0.19526769
2.2980366 0.34746084 -0.19594026
2.3054955 0.32393605 -0.19627649
2.3206182 0.30131927 -0.19728541
2.3315606 0.27794942 -0.19795801
2.3383048 0.25395304 -0.19829425
2.348768 0.23023459 -0.19896685
2.3629613 0.20667192 -0.1999758
2.3729429 0.18253154 -0.20064841
2.3826771 0.15820472 -0.20132104
2.3921611 0.13369393 -0.20199364
2.4013925 0.10900183 -0.2026663
2.4143512 0.084269866 -0.20367526
2.4230692 0.059181247 -0.20434792
2.4355116 0.033974659 -0.2053569
2.44769 0.0085139498 -0.20636591
2.4556153 -0.017170049 -0.2070386
2.4632699 -0.043019097 -0.20771123
2.4706519 -0.069030352 -0.2083839
2.4777582 -0.095200911 -0.2090566
2.4845862 -0.12152785 -0.20972925
2.4951127 -0.14824483 -0.21073832
2.5013742 -0.17491722 -0.211411
2.5113235 -0.2020569 -0.21242008
2.520977 -0.22942404 -0.21342914
2.5303309 -0.25701538 -0.2144382
2.5393827 -0.28482768 -0.21544729
2.552084 -0.31334358 -0.21679272
2.560514 -0.34162915 -0.21780179
2.5725751 -0.37069422 -0.21914726
2.5803676 -0.39943916 -0.22015639
2.5878389 -0.42838767 -0.22116549
2.6028361 -0.45892102 -0.22284733
2.6174753 -0.48981506 -0.22452916
2.6356606 -0.52184004 -0.22654735
2.6495581 -0.55348384 -0.22822919
2.6669726 -0.58633161 -0.23024742
2.6606851 -0.61422306 -0.23024753
2.7354605 -0.66173398 -0.23731107
3.0065875 -0.76075327 -0.2615287
3.029283 -0.80033875 -0.26421967
3.0361054 -0.83624727 -0.26556525
3.0501692 -0.87458384 -0.26758355
3.0637603 -0.91330582 -0.26960182
3.0768719 -0.95240772 -0.27162012
3.0894983 -0.99188352 -0.27363843
3.1016331 -1.0317277 -0.27565679
3.117038 -1.0732315 -0.27801147
3.1319108 -1.1151701 -0.28036618
3.146244 -1.157537 -0.28272089
3.1637568 -1.2017411 -0.28541201
3.1769745 -1.2449828 -0.28776675
3.1896303 -1.2886323 -0.29012153
3.2053974 -1.3342141 -0.29281265
3.2205563 -1.3802661 -0.29550382
3.2314525 -1.4251719 -0.2978586
3.2490175 -1.4737494 -0.30088612
0.7624253 -0.3650389 -0.071153119
1.0339286 -0.50851691 -0.097052917
0.64432544 -0.32520014 -0.06072611
0.98412573 -0.50987059 -0.093353182
0.99984628 -0.53137249 -0.095371448
1.0082234 -0.54944205 -0.096717022
1.0093718 -0.56385511 -0.097389862
1.0103279 -0.57835197 -0.098062716
1.0110903 -0.59293026 -0.098735563
1.0116574 -0.60758752 -0.099408418
1.0154225 -0.62441009 -0.10041765
1.0121995 -0.63712901 -0.10075416
1.0255723 -0.66064554 -0.10277249
3.5208306 -2.3214717 -0.35571936
3.5326729 -2.3827291 -0.35941985
2.0154076 1.3505995 -0.2635709
2.0493972 1.3425001 -0.26616457
2.3178606 1.4839323 -0.29902172
2.3332715 1.4595832 -0.2990213
2.3382475 1.4288529 -0.29772383
2.3496664 1.4022552 -0.2972911
2.3573487 1.3735731 -0.29642609
2.3681457 1.3468506 -0.29599336
2.3786411 1.3200525 -0.2955606
2.385339 1.2912894 -0.29469556
2.3952127 1.2643876 -0.29426286
2.4047844 1.2374208 -0.29383016
2.4140549 1.2103925 -0.29339746
2.4194498 1.1815606 -0.29253244
2.428098 1.1544567 -0.29209977
2.4364438 1.1273012 -0.2916671
2.4444876 1.1000978 -0.29123446
2.4558725 1.0744436 -0.29123411
2.4633286 1.047116 -0.29080144
2.4704816 1.0197501 -0.29036883
2.4810236 0.99382812 -0.29036853
2.48388 0.96491718 -0.28950354
2.4975686 0.94025898 -0.28993556
2.4848607 0.9058854 -0.28734136
2.2017024 0.77663594 -0.25361973
2.1683125 0.73942322 -0.24886391
2.1683812 0.71419275 -0.24799901
2.1795299 0.6926555 -0.24843115
2.1866627 0.6697982 -0.24843092
2.1973698 0.64799237 -0.24886303
2.2040336 0.62495071 -0.24886282
2.2104561 0.60184062 -0.24886262
2.2166357 0.57866442 -0.24886242
2.2264307 0.55638891 -0.24929455
2.2360015 0.53397161 -0.24972668
2.245347 0.51141489 -0.25015882
2.2544641 0.48872069 -0.25059098
2.2633522 0.46589157 -0.25102311
2.2720087 0.44292983 -0.25145531
2.2843428 0.42055774 -0.25231978
2.2925386 0.39729676 -0.25275195
2.3044221 0.37454805 -0.25361642
2.3121483 0.35099709 -0.25404862
2.3196337 0.32732537 -0.25448081
2.3308191 0.30404952 -0.25534531
2.3417709 0.28057522 -0.25620985
2.3524854 0.25690481 -0.25707436
2.3590028 0.2326504 -0.25750652
2.3692312 0.20863639 -0.25837111
2.3792143 0.1844335 -0.25923562
2.3889494 0.1600444 -0.26010016
2.3984337 0.13547157 -0.26096472
2.4076641 0.11071755 -0.26182926
2.4166384 0.085785039 -0.26269382
2.4253538 0.060676657 -0.26355839
2.4338076 0.035395134 -0.26442295
2.4419968 0.0099431835 -0.26528758
2.4538953 -0.015702046 -0.26658446
2.4615471 -0.041528106 -0.26744902
2.4729011 -0.067625053 -0.26874596
2.4800034 -0.093813792 -0.26961052
2.4907997 -0.12035083 -0.27090749
2.5013108 -0.1471242 -0.2722044
2.511533 -0.17413083 -0.27350137
2.5214622 -0.20136763 -0.27479833
2.5350559 -0.22918966 -0.27652755
2.5443847 -0.25691858 -0.27782452
2.5534098 -0.28486791 -0.27912146
2.5621271 -0.3130343 -0.28041849
2.570533 -0.3414143 -0.28171545
2.5786242 -0.37000462 -0.28301245
2.5903277 -0.39940789 -0.28474176
2.601696 -0.42909658 -0.2864711
2.6166413 -0.45975527 -0.28863272
2.6273189 -0.4900443 -0.29036206
2.6376469 -0.52060711 -0.2920914
2.6476209 -0.55143946 -0.29382074
2.6650057 -0.58424127 -0.29641476
2.6626155 -0.61300474 -0.29684716
2.7526884 -0.66417408 -0.30765522
3.0077612 -0.75915146 -0.33705297
3.0342524 -0.79972589 -0.34094399
3.0410478 -0.83566755 -0.34267339
3.0550673 -0.87402683 -0.34526747
3.0686147 -0.91277081 -0.34786156
3.0816832 -0.95189351 -0.35045564
3.0942662 -0.99138933 -0.35304973
3.1063573 -1.0312521 -0.35564384
3.121711 -1.0727687 -0.35867026
3.1365328 -1.1147192 -0.36169672
3.1508155 -1.1570965 -0.36472324
3.1682701 -1.2013044 -0.368182
3.1851406 -1.2460034 -0.37164083
3.2014194 -1.2911862 -0.37509966
3.2134261 -1.3353193 -0.37812617
3.2212005 -1.3782794 -0.38072038
3.2357037 -1.4247537 -0.38417923
3.2314723 -1.4634773 -0.38547653
1.1215235 -0.52194095 -0.13429728
1.0478399 -0.50104278 -0.12608325
0.74988037 -0.36817473 -0.090632811
0.99806041 -0.50316715 -0.1213279
1.0139239 -0.52455556 -0.12392194
1.0118864 -0.53700519 -0.12435439
1.0062063 -0.54756778 -0.12435451
1.0004159 -0.55807024 -0.12435463
0.99796754 -0.57048589 -0.12478708
0.99193758 -0.58090097 -0.1247872
0.99943769 -0.59943724 -0.12651664
0.99988067 -0.61402977 -0.12738144
1.0068589 -0.63293129 -0.12911089
1.0035183 -0.64558828 -0.12954336
1.0199487 -0.67136794 -0.1325698
3.5423632 -2.3862069 -0.46416646
2.2495339 1.5084798 -0.36050308
2.2287302 1.4609326 -0.35469413
2.307338 1.478159 -0.36472663
2.3327713 1.460232 -0.36631036
2.3445506 1.4336594 -0.3657819
2.3526261 1.4049674 -0.36472541
2.3603575 1.3762636 -0.36366889
2.3711932 1.3495141 -0.36314046
2.3782613 1.3207637 -0.362084
2.3849878 1.2920133 -0.36102748
2.3948798 1.2651196 -0.36049908
2.4009454 1.2363453 -0.35944265
2.4102151 1.2093612 -0.35891423
2.419184 1.1823188 -0.3583858
2.4278507 1.1552217 -0.35785744
2.4362161 1.1280726 -0.35732907
2.4442792 1.1008751 -0.35680071
2.45204 1.0736328 -0.35627228
2.4594986 1.0463487 -0.35574394
2.4703197 1.0205402 -0.35574365
2.4771895 0.99314439 -0.35521531
2.483757 0.96571678 -0.35468695
2.4937325 0.93965882 -0.35468665
2.4848111 0.90670186 -0.35204619
2.2174985 0.78294724 -0.31297114
2.1655362 0.73919314 -0.30452228
2.1731567 0.71647984 -0.30452207
2.1805391 0.69368804 -0.3045218
2.1876829 0.67082018 -0.30452162
2.1945863 0.64787871 -0.30452138
2.2050633 0.62594908 -0.30504921
2.2114961 0.60282803 -0.305049
2.2176862 0.57964104 -0.30504882
2.2274799 0.55735278 -0.30557665
2.2331932 0.53400081 -0.30557647
2.2386613 0.51059031 -0.30557629
2.2477589 0.48796499 -0.30610415
2.2566276 0.46520498 -0.30663201
2.2652657 0.44231263 -0.3071599
2.2736712 0.4192903 -0.30768773
2.2857494 0.39681852 -0.30874369
2.2976053 0.37413949 -0.30979958
2.3092358 0.3512556 -0.31085554
2.3206379 0.32816896 -0.31191143
2.3318095 0.30488193 -0.31296745
2.3427465 0.28139678 -0.31402335
2.3495047 0.2572844 -0.31455126
2.3599606 0.2334515 -0.31560725
2.3701737 0.20942768 -0.31666318
2.3801422 0.18521552 -0.31771916
2.3898621 0.16081744 -0.31877509
2.3993306 0.13623606 -0.31983107
2.4085462 0.11147393 -0.32088706
2.4175053 0.086533681 -0.32194307
2.4262052 0.061417978 -0.32299903
2.4306788 0.036070868 -0.32352701
2.4428172 0.010671055 -0.32511106
2.4507234 -0.01495465 -0.32616705
2.466289 -0.04087659 -0.32827914
2.4736514 -0.066911317 -0.32933515
2.4847007 -0.093253642 -0.33091921
2.4915075 -0.11964425 -0.33197522
2.5019915 -0.14641951 -0.33355927
2.5082309 -0.17315407 -0.33461535
2.5181365 -0.20035005 -0.33619943
2.5277462 -0.22777234 -0.33778352
2.5410013 -0.25581521 -0.33989567
2.5500035 -0.28372177 -0.34147972
2.5586996 -0.31184483 -0.34306389
2.5670843 -0.34018099 -0.344648
2.5751545 -0.36872673 -0.34623212
2.5868263 -0.39808199 -0.34834427
2.5942514 -0.42707753 -0.34992841
2.6130679 -0.45832783 -0.35309666
2.6237154 -0.4885664 -0.35520884
2.6379049 -0.51984483 -0.35784906
2.6517248 -0.5514735 -0.36048928
2.676789 -0.58599293 -0.36471361
2.6705048 -0.61398727 -0.36471373
2.756438 -0.66421342 -0.37738654
3.0107667 -0.75895983 -0.41329271
3.0256584 -0.79649991 -0.41646105
3.0439153 -0.83548427 -0.4201574
3.0578718 -0.8738476 -0.42332578
3.0675557 -0.91146469 -0.42596608
3.0805736 -0.95054913 -0.42913443
3.093107 -0.99000555 -0.4323028
3.108912 -1.0310761 -0.43599924
3.1204433 -1.0712976 -0.43916765
3.1352072 -1.1131998 -0.44286406
3.1494327 -1.1555278 -0.44656056
3.1631126 -1.1982747 -0.45025703
3.1799326 -1.2428775 -0.45448154
3.1924846 -1.2864803 -0.45817801
3.2081308 -1.3320019 -0.46240255
3.2195249 -1.3764318 -0.46609902
0.68993777 -0.3033202 -0.10017143
1.1635355 -0.52633786 -0.16987211
0.71578598 -0.33274838 -0.10492387
0.70868379 -0.33851117 -0.10439591
1.0254164 -0.50319421 -0.15191922
0.99530554 -0.50140685 -0.14822309
1.0005641 -0.517263 -0.14980729
0.99509138 -0.52770811 -0.14980739
0.99299252 -0.53999048 -0.15033558
0.98728222 -0.55035508 -0.15033568
0.98834819 -0.56459439 -0.15139188
0.96869439 -0.56689471 -0.14927986
0.98310584 -0.58923906 -0.15244821
0.97350156 -0.5974226 -0.1519203
0.99404609 -0.62446034 -0.15614477
0.99745518 -0.64126664 -0.15772904
1.007244 -0.66257179 -0.1603694
3.4900038 -2.3494244 -0.56009698
2.2608356 1.5171452 -0.42950088
2.2633836 1.4847221 -0.4270061
2.3153932 1.4844019 -0.43386516
2.3308096 1.4600786 -0.43386474
2.3459702 1.4355953 -0.43386433
2.3540905 1.4069002 -0.43261674
2.3618679 1.3781928 -0.43136916
2.3693032 1.3494775 -0.43012157
2.3798499 1.3226774 -0.42949757
2.3866222 1.2939215 -0.42825001
2.3965468 1.2670159 -0.4276261
2.4061706 1.2400446 -0.42700213
2.4154918 1.2130107 -0.42637813
2.4245114 1.1859177 -0.42575422
2.433229 1.1587692 -0.42513031
2.4416437 1.1315684 -0.4245064
2.4497561 1.1043185 -0.42388242
2.457566 1.0770228 -0.42325851
2.4650736 1.0496851 -0.4226346
2.4722781 1.0223082 -0.42201075
2.4791799 0.99489576 -0.42138684
2.4857786 0.96745098 -0.42076293
2.4957721 0.94137168 -0.42076263
2.472091 0.90298831 -0.41515014
2.2243683 0.78620183 -0.37212276
2.1726573 0.74242771 -0.36214525
2.1728075 0.71716291 -0.36089787
2.1839619 0.69557381 -0.36152121
2.1911249 0.67267007 -0.36152101
2.1980476 0.64969242 -0.36152077
2.2085299 0.62772387 -0.36214417
2.2149811 0.60456651 -0.36214393
2.2250111 0.58234322 -0.36276731
2.2309861 0.55901575 -0.3627671
2.2405591 0.53654712 -0.36339051
2.2460535 0.51305938 -0.36339033
2.255163 0.49035487 -0.36401376
2.2640426 0.46751568 -0.36463714
2.2726908 0.4445442 -0.36526057
2.2811053 0.42144278 -0.36588395
2.2892847 0.39821371 -0.36650738
2.3011274 0.37549582 -0.3677544
2.3127439 0.35257339 -0.36900142
2.3280439 0.33000308 -0.37087205
2.3352885 0.306124 -0.37149546
2.3501332 0.28307402 -0.37336606
2.3568947 0.25888401 -0.37398952
2.3673391 0.23497351 -0.37523657
2.3736045 0.21052362 -0.37586007
2.3874946 0.18658361 -0.37773064
2.3932588 0.16184282 -0.37835416
2.4066548 0.13745196 -0.38022473
2.4158549 0.11261443 -0.38147184
2.428746 0.087741695 -0.38334247
2.4374304 0.062510155 -0.38458955
2.441901 0.037046563 -0.38521308
2.4500556 0.011514563 -0.38646016
2.457943 -0.014184183 -0.38770726
2.4655595 -0.04004686 -0.38895431
